 0.3569  0.9640  0.0050 1080.0000 
 0.2409  0.6308  0.0150 168.0000 
 0.4236  0.3254  0.0250 932.0000 
 0.3914  0.4933  0.0350 861.0000 
 0.4690  0.4266  0.0450 999.0000 
 0.4238  0.3957  0.0550 590.0000 
 0.0279  0.3749  0.0650 851.0000 
 0.2624  0.3431  0.0750 360.0000 
 0.2354  0.6150  0.0850 421.0000 
 0.4197  0.2690  0.0950 271.0000 
 0.4892  0.5972  0.1050 920.0000 
 0.3562  0.3274  0.1150 433.0000 
 0.5859  0.4727  0.1250 579.0000 
 0.3769  0.2752  0.1350 1028.0000 
 0.2375  0.4214  0.1450 133.0000 
 0.1499  0.5756  0.1550 509.0000 
 0.3711  0.1674  0.1650 527.0000 
 0.4828  0.3827  0.1750 366.0000 
 0.3922  0.3246  0.1850 503.0000 
 0.3014  0.2872  0.1950 304.0000 
 0.4119  0.5643  0.2050 959.0000 
 0.4918  0.4133  0.2150 471.0000 
 0.2789  0.4261  0.2250 401.0000 
 0.4403  0.3679  0.2350 250.0000 
 0.1858  0.3321  0.2450 939.0000 
 0.4067  0.2961  0.2550 485.0000 
 0.3297  0.5344  0.2650 211.0000 
 0.4615  0.2594  0.2750 590.0000 
 0.1615  0.4583  0.2850 917.0000 
 0.4600  0.3359  0.2950 172.0000 
 0.5710  0.0591  0.3050 313.0000 
 0.4329  0.5654  0.3150 363.0000 
 0.1945  0.5960  0.3250 701.0000 
 0.6553  0.3836  0.3350 265.0000 
 0.5511  0.2962  0.3450 688.0000 
 0.3385  0.3286  0.3550 715.0000 
 0.5280  0.5114  0.3650 241.0000 
 0.3368  0.2503  0.3750 106.0000 
 0.5110  0.3833  0.3850 621.0000 
 0.5424  0.4722  0.3950 249.0000 
 0.3906  0.3738  0.4050 394.0000 
 0.4795  0.2995  0.4150 383.0000 
 0.7446  0.2196  0.4250 302.0000 
 0.3185  0.3302  0.4350 364.0000 
 0.4713  0.3576  0.4450 1043.0000 
 0.3333  0.4868  0.4550 1057.0000 
 0.3016  0.3957  0.4650 319.0000 
 0.8265  0.4465  0.4750 785.0000 
 0.4544  0.4539  0.4850 223.0000 
 0.3323  0.3911  0.4950 799.0000 
 0.6486  0.3442  0.5050 319.0000 
 0.6043  0.3937  0.5150 740.0000 
 0.4083  0.2171  0.5250 135.0000 
 0.3951  0.5323  0.5350 518.0000 
 0.5024  0.2958  0.5450 348.0000 
 0.2495  0.3532  0.5550 486.0000 
 0.5556  0.3860  0.5650 187.0000 
 0.8599  0.2009  0.5750 812.0000 
 0.4226  0.2538  0.5850 639.0000 
 0.5447  0.3349  0.5950 135.0000 
 0.3161  0.2832  0.6050 471.0000 
 0.2761  0.2475  0.6150 406.0000 
 0.6626  0.3806  0.6250 862.0000 
 0.5887  0.3895  0.6350 985.0000 
 0.6212  0.4146  0.6450 289.0000 
 0.5433  0.2437  0.6550 930.0000 
 0.2484  0.3812  0.6650 1096.0000 
 0.4364  0.4042  0.6750 815.0000 
 0.4128  0.2522  0.6850 647.0000 
 0.7397  0.3128  0.6950 586.0000 
 0.6770  0.2484  0.7050 1057.0000 
 0.6373  0.4387  0.7150 827.0000 
 0.6859  0.3252  0.7250 828.0000 
 0.6078  0.3594  0.7350 553.0000 
 0.6847  0.3272  0.7450 318.0000 
 0.6844  0.2962  0.7550 219.0000 
 0.4849  0.3069  0.7650 467.0000 
 0.6582  0.3564  0.7750 207.0000 
 0.2838  0.1777  0.7850 568.0000 
 0.6029  0.3134  0.7950 566.0000 
 0.6829  0.1550  0.8050 738.0000 
 0.4003  0.1569  0.8150 464.0000 
 0.4612  0.2230  0.8250 151.0000 
 0.6165  0.1938  0.8350 470.0000 
 0.5936  0.3016  0.8450 568.0000 
 0.5218  0.3133  0.8550 856.0000 
 0.4417  0.2832  0.8650 418.0000 
 0.7664  0.3010  0.8750 190.0000 
 0.5424  0.2792  0.8850 1001.0000 
 0.7403  0.3131  0.8950 137.0000 
 0.5269  0.2251  0.9050 645.0000 
 0.6719  0.2124  0.9150 193.0000 
 0.8778  0.3044  0.9250 112.0000 
 0.6855  0.1651  0.9350 519.0000 
 0.7226  0.4966  0.9450 541.0000 
 0.7187  0.3213  0.9550 840.0000 
 0.6731  0.2503  0.9650 113.0000 
 0.8338  0.2802  0.9750 857.0000 
 0.8087  0.3620  0.9850 605.0000 
 0.7680  0.2743  0.9950 651.0000 
